ply
		format ascii 1.0
		element vertex 727
		property float x
		property float y
		property float z
		property uchar red
		property uchar green
		property uchar blue
		end_header
		63.000000 0.000000 9.576000 254 254 254
64.000000 0.000000 10.573500 254 254 254
65.000000 0.000000 10.972500 248 248 248
66.000000 0.000000 11.172000 232 232 232
67.000000 0.000000 11.770499 238 238 238
68.000000 0.000000 12.169499 252 252 252
69.000000 0.000000 12.169499 254 254 254
70.000000 0.000000 12.169499 254 254 254
71.000000 0.000000 12.169499 254 254 254
72.000000 0.000000 12.169499 254 254 254
73.000000 0.000000 12.169499 254 254 254
74.000000 0.000000 12.368999 254 254 254
75.000000 0.000000 12.368999 254 254 254
76.000000 0.000000 12.368999 254 254 254
77.000000 0.000000 12.368999 254 254 254
78.000000 0.000000 9.775499 254 254 254
63.000000 -1.000000 8.977500 254 254 254
64.000000 -1.000000 9.576000 252 252 252
65.000000 -1.000000 9.974999 242 242 242
66.000000 -1.000000 10.374000 234 234 234
67.000000 -1.000000 10.972500 246 246 246
68.000000 -1.000000 10.972500 253 253 253
69.000000 -1.000000 10.972500 254 254 254
70.000000 -1.000000 10.972500 254 254 254
71.000000 -1.000000 10.174500 254 254 254
72.000000 -1.000000 9.775499 254 254 254
73.000000 -1.000000 9.775499 254 254 254
74.000000 -1.000000 9.775499 254 254 254
75.000000 -1.000000 9.775499 254 254 254
76.000000 -1.000000 9.775499 254 254 254
77.000000 -1.000000 9.775499 254 254 254
78.000000 -1.000000 8.578500 254 254 254
63.000000 -2.000000 7.780500 253 253 253
64.000000 -2.000000 8.977500 246 246 246
65.000000 -2.000000 9.376500 237 237 237
66.000000 -2.000000 9.576000 244 244 244
67.000000 -2.000000 9.775499 253 253 253
68.000000 -2.000000 9.775499 254 254 254
69.000000 -2.000000 10.174500 254 254 254
70.000000 -2.000000 10.174500 254 254 254
71.000000 -2.000000 9.376500 254 254 254
72.000000 -2.000000 8.977500 254 254 254
73.000000 -2.000000 8.578500 254 254 254
74.000000 -2.000000 8.578500 254 254 254
75.000000 -2.000000 8.578500 254 254 254
76.000000 -2.000000 8.578500 254 254 254
77.000000 -2.000000 8.578500 254 254 254
78.000000 -2.000000 6.184500 254 254 254
63.000000 -3.000000 6.384000 249 249 249
64.000000 -3.000000 7.780500 240 240 240
65.000000 -3.000000 8.379000 244 244 244
66.000000 -3.000000 8.778000 252 252 252
67.000000 -3.000000 8.778000 254 254 254
68.000000 -3.000000 8.778000 254 254 254
69.000000 -3.000000 8.977500 254 254 254
70.000000 -3.000000 8.977500 254 254 254
71.000000 -3.000000 8.179500 254 254 254
72.000000 -3.000000 6.583500 254 254 254
73.000000 -3.000000 6.384000 254 254 254
74.000000 -3.000000 6.184500 254 254 254
75.000000 -3.000000 6.184500 254 254 254
76.000000 -3.000000 6.184500 254 254 254
77.000000 -3.000000 6.184500 254 254 254
78.000000 -3.000000 2.394000 254 254 254
63.000000 -4.000000 0.798000 243 243 243
64.000000 -4.000000 5.586000 244 244 244
65.000000 -4.000000 5.586000 252 252 252
66.000000 -4.000000 5.985000 254 254 254
67.000000 -4.000000 6.384000 254 254 254
68.000000 -4.000000 6.783000 254 254 254
69.000000 -4.000000 7.581000 254 254 254
70.000000 -4.000000 6.783000 254 254 254
71.000000 -4.000000 2.194500 254 254 254
72.000000 -4.000000 2.194500 254 254 254
73.000000 -4.000000 2.394000 254 254 254
74.000000 -4.000000 2.394000 254 254 254
75.000000 -4.000000 2.394000 254 254 254
76.000000 -4.000000 2.394000 254 254 254
77.000000 -4.000000 2.394000 254 254 254
78.000000 -4.000000 1.396500 254 254 254
63.000000 -5.000000 -0.199500 245 245 245
64.000000 -5.000000 0.798000 252 252 252
65.000000 -5.000000 2.793000 254 254 254
66.000000 -5.000000 2.793000 254 254 254
67.000000 -5.000000 2.793000 254 254 254
68.000000 -5.000000 2.793000 254 254 254
69.000000 -5.000000 6.783000 254 254 254
70.000000 -5.000000 1.396500 254 254 254
71.000000 -5.000000 0.598500 254 254 254
72.000000 -5.000000 0.598500 254 254 254
73.000000 -5.000000 0.798000 254 254 254
74.000000 -5.000000 0.798000 254 254 254
75.000000 -5.000000 0.997500 254 254 254
76.000000 -5.000000 1.197000 254 254 254
77.000000 -5.000000 1.396500 254 254 254
78.000000 -5.000000 1.396500 254 254 254
63.000000 -6.000000 -0.199500 251 251 251
64.000000 -6.000000 0.798000 254 254 254
65.000000 -6.000000 2.793000 254 254 254
66.000000 -6.000000 2.793000 254 254 254
67.000000 -6.000000 2.793000 254 254 254
68.000000 -6.000000 2.793000 254 254 254
69.000000 -6.000000 24.338999 254 254 254
70.000000 -6.000000 24.538500 252 252 253
71.000000 -6.000000 0.598500 251 251 251
72.000000 -6.000000 0.598500 253 253 253
73.000000 -6.000000 0.798000 254 254 254
74.000000 -6.000000 0.798000 254 254 254
75.000000 -6.000000 0.798000 254 254 254
76.000000 -6.000000 0.997500 254 254 254
77.000000 -6.000000 1.396500 254 254 254
78.000000 -6.000000 1.396500 254 254 254
63.000000 -7.000000 -0.199500 254 254 254
64.000000 -7.000000 20.747999 254 254 254
65.000000 -7.000000 22.344000 254 254 254
66.000000 -7.000000 22.743000 254 254 254
67.000000 -7.000000 23.341499 254 254 254
68.000000 -7.000000 24.338999 253 253 253
69.000000 -7.000000 24.538500 252 252 252
70.000000 -7.000000 24.538500 247 246 246
71.000000 -7.000000 24.538500 241 239 240
72.000000 -7.000000 24.538500 248 247 248
73.000000 -7.000000 22.942499 252 251 251
74.000000 -7.000000 18.952499 252 251 251
75.000000 -7.000000 0.399000 252 250 250
63.000000 -8.000000 16.957500 254 254 254
64.000000 -8.000000 21.146999 254 254 254
65.000000 -8.000000 22.144499 254 254 254
66.000000 -8.000000 22.344000 254 254 254
67.000000 -8.000000 22.743000 251 251 251
68.000000 -8.000000 23.341499 245 243 244
69.000000 -8.000000 24.338999 240 235 235
70.000000 -8.000000 24.338999 241 235 233
71.000000 -8.000000 24.538500 243 236 235
72.000000 -8.000000 24.538500 248 243 241
73.000000 -8.000000 24.139500 251 249 246
74.000000 -8.000000 22.743000 250 249 246
63.000000 -9.000000 16.358999 254 254 254
64.000000 -9.000000 19.351500 254 254 254
65.000000 -9.000000 20.747999 253 253 253
66.000000 -9.000000 21.546000 248 247 247
67.000000 -9.000000 22.144499 238 234 234
68.000000 -9.000000 22.543499 229 220 216
69.000000 -9.000000 23.142000 222 207 198
70.000000 -9.000000 23.341499 229 213 202
71.000000 -9.000000 23.740499 233 220 213
72.000000 -9.000000 23.939999 237 227 221
73.000000 -9.000000 22.942499 239 232 227
74.000000 -9.000000 22.344000 234 229 224
63.000000 -10.000000 16.358999 254 254 254
64.000000 -10.000000 16.957500 254 254 254
65.000000 -10.000000 19.351500 249 249 249
66.000000 -10.000000 20.348999 235 232 230
67.000000 -10.000000 21.346498 227 216 211
68.000000 -10.000000 21.945000 221 205 192
69.000000 -10.000000 22.344000 218 199 183
70.000000 -10.000000 22.344000 216 197 184
71.000000 -10.000000 22.543499 206 189 181
72.000000 -10.000000 22.344000 222 208 198
73.000000 -10.000000 22.344000 237 224 211
74.000000 -10.000000 21.346498 223 207 194
63.000000 -11.000000 15.959999 254 254 254
64.000000 -11.000000 16.358999 252 251 251
65.000000 -11.000000 16.957500 240 237 237
66.000000 -11.000000 19.351500 230 220 215
67.000000 -11.000000 21.146999 221 204 194
68.000000 -11.000000 21.546000 206 187 175
69.000000 -11.000000 21.945000 207 189 180
70.000000 -11.000000 21.945000 213 197 189
71.000000 -11.000000 21.546000 217 206 201
72.000000 -11.000000 21.546000 237 231 219
73.000000 -11.000000 21.346498 245 238 220
74.000000 -11.000000 21.146999 231 215 196
75.000000 -11.000000 21.146999 228 209 185
63.000000 -12.000000 14.962500 249 249 249
64.000000 -12.000000 15.959999 240 239 238
65.000000 -12.000000 16.159500 231 224 218
66.000000 -12.000000 16.757999 230 214 202
67.000000 -12.000000 18.553499 219 201 186
68.000000 -12.000000 21.146999 205 187 176
69.000000 -12.000000 21.546000 217 207 201
70.000000 -12.000000 21.546000 239 235 230
71.000000 -12.000000 21.346498 247 245 242
72.000000 -12.000000 18.753000 250 249 243
73.000000 -12.000000 18.753000 243 239 226
74.000000 -12.000000 19.949999 219 206 192
75.000000 -12.000000 21.346498 206 189 174
76.000000 -12.000000 22.743000 202 185 170
63.000000 -13.000000 14.962500 214 214 214
64.000000 -13.000000 15.959999 210 209 206
65.000000 -13.000000 16.159500 215 207 197
66.000000 -13.000000 16.159500 225 209 191
67.000000 -13.000000 15.959999 236 221 202
68.000000 -13.000000 15.959999 240 232 218
69.000000 -13.000000 18.553499 245 243 234
70.000000 -13.000000 18.553499 249 247 244
71.000000 -13.000000 17.157000 248 246 243
72.000000 -13.000000 18.354000 241 235 228
73.000000 -13.000000 18.553499 231 222 209
74.000000 -13.000000 21.146999 193 177 167
75.000000 -13.000000 92.568001 162 144 139
76.000000 -13.000000 92.767494 155 137 135
68.000000 -14.000000 9.974999 245 240 226
69.000000 -14.000000 15.959999 239 232 222
70.000000 -14.000000 16.558500 226 212 204
71.000000 -14.000000 16.957500 227 212 204
72.000000 -14.000000 17.157000 226 208 196
73.000000 -14.000000 18.553499 209 191 174
74.000000 -14.000000 91.769997 182 163 152
75.000000 -14.000000 92.568001 154 134 131
76.000000 -14.000000 92.767494 147 128 127
77.000000 -14.000000 91.769997 145 127 125
64.000000 -15.000000 0.798000 167 168 165
65.000000 -15.000000 1.197000 172 170 165
69.000000 -15.000000 15.561000 205 186 175
70.000000 -15.000000 15.561000 196 169 155
71.000000 -15.000000 15.760500 199 170 156
72.000000 -15.000000 16.957500 216 191 175
73.000000 -15.000000 91.570496 204 183 165
74.000000 -15.000000 91.769997 179 160 150
75.000000 -15.000000 91.769997 152 133 130
76.000000 -15.000000 91.769997 145 127 126
77.000000 -15.000000 91.171501 143 126 123
64.000000 -16.000000 0.399000 159 160 155
65.000000 -16.000000 0.598500 151 150 148
70.000000 -16.000000 14.962500 197 171 160
71.000000 -16.000000 15.561000 200 176 166
72.000000 -16.000000 15.760500 217 198 187
73.000000 -16.000000 91.769997 215 198 187
74.000000 -16.000000 91.769997 181 163 156
75.000000 -16.000000 91.769997 152 133 129
76.000000 -16.000000 91.171501 145 126 124
77.000000 -16.000000 90.373497 143 125 122
63.000000 -17.000000 0.399000 179 179 162
64.000000 -17.000000 0.598500 169 171 154
65.000000 -17.000000 0.997500 168 165 158
66.000000 -17.000000 0.598500 189 176 172
72.000000 -17.000000 15.561000 233 228 227
73.000000 -17.000000 91.570496 221 214 213
74.000000 -17.000000 91.570496 181 166 163
75.000000 -17.000000 91.370995 150 132 129
76.000000 -17.000000 90.373497 143 126 123
77.000000 -17.000000 85.984497 140 124 119
63.000000 -18.000000 0.399000 179 178 152
64.000000 -18.000000 0.997500 182 181 149
65.000000 -18.000000 1.197000 205 201 186
66.000000 -18.000000 0.598500 231 226 222
72.000000 -18.000000 15.959999 236 233 231
73.000000 -18.000000 17.356499 216 209 208
74.000000 -18.000000 20.149500 176 163 160
75.000000 -18.000000 85.984497 148 133 130
76.000000 -18.000000 85.784996 142 128 126
77.000000 -18.000000 21.945000 140 126 123
63.000000 -19.000000 0.997500 174 170 131
64.000000 -19.000000 38.304001 152 150 110
65.000000 -19.000000 38.304001 186 185 161
66.000000 -19.000000 2.394000 234 232 223
67.000000 -19.000000 2.394000 227 224 212
68.000000 -19.000000 38.503498 206 202 184
69.000000 -19.000000 16.358999 207 203 189
70.000000 -19.000000 15.959999 212 204 194
71.000000 -19.000000 16.159500 209 198 183
72.000000 -19.000000 16.159500 192 180 165
73.000000 -19.000000 17.356499 184 169 156
74.000000 -19.000000 18.753000 165 151 143
75.000000 -19.000000 20.149500 145 132 129
76.000000 -19.000000 21.945000 142 129 127
77.000000 -19.000000 21.945000 141 128 125
63.000000 -20.000000 37.904999 143 141 99
64.000000 -20.000000 38.304001 107 109 77
65.000000 -20.000000 38.304001 127 127 102
66.000000 -20.000000 38.304001 186 181 158
67.000000 -20.000000 38.304001 178 170 144
68.000000 -20.000000 38.304001 141 135 107
69.000000 -20.000000 16.358999 144 135 112
70.000000 -20.000000 16.159500 163 146 127
71.000000 -20.000000 16.159500 173 156 131
72.000000 -20.000000 16.358999 159 142 124
73.000000 -20.000000 17.356499 159 140 125
74.000000 -20.000000 18.753000 156 139 128
75.000000 -20.000000 20.149500 139 123 115
76.000000 -20.000000 21.945000 135 119 112
77.000000 -20.000000 21.945000 134 118 110
63.000000 -21.000000 37.705498 124 123 84
64.000000 -21.000000 38.104500 94 97 67
65.000000 -21.000000 38.304001 100 101 74
66.000000 -21.000000 38.304001 155 149 119
67.000000 -21.000000 38.503498 159 150 118
68.000000 -21.000000 38.304001 119 114 85
69.000000 -21.000000 38.304001 132 123 98
70.000000 -21.000000 16.358999 164 146 129
71.000000 -21.000000 16.159500 171 152 134
72.000000 -21.000000 16.358999 165 147 132
73.000000 -21.000000 16.757999 165 145 133
74.000000 -21.000000 18.354000 157 141 128
75.000000 -21.000000 18.753000 136 120 109
76.000000 -21.000000 21.945000 131 115 106
77.000000 -21.000000 21.945000 130 114 103
63.000000 -22.000000 37.705498 127 127 84
64.000000 -22.000000 37.904999 97 100 64
65.000000 -22.000000 38.104500 96 98 66
66.000000 -22.000000 38.304001 144 141 105
67.000000 -22.000000 38.304001 158 152 111
68.000000 -22.000000 38.304001 117 114 79
69.000000 -22.000000 38.304001 131 124 95
70.000000 -22.000000 38.304001 180 163 142
71.000000 -22.000000 16.358999 178 161 148
72.000000 -22.000000 16.358999 174 159 146
73.000000 -22.000000 16.358999 177 159 146
74.000000 -22.000000 16.757999 159 143 129
63.000000 -23.000000 37.705498 127 127 78
64.000000 -23.000000 37.705498 117 120 72
65.000000 -23.000000 37.904999 135 137 82
66.000000 -23.000000 38.104500 159 158 101
67.000000 -23.000000 38.104500 146 142 94
68.000000 -23.000000 38.104500 113 111 72
69.000000 -23.000000 38.104500 128 126 87
70.000000 -23.000000 38.304001 186 181 140
71.000000 -23.000000 38.104500 190 184 157
72.000000 -23.000000 16.358999 184 178 149
73.000000 -23.000000 16.358999 189 183 147
63.000000 -24.000000 37.506001 167 167 103
64.000000 -24.000000 37.705498 164 165 100
65.000000 -24.000000 37.705498 164 165 96
66.000000 -24.000000 37.705498 174 172 109
67.000000 -24.000000 37.705498 151 149 98
68.000000 -24.000000 37.705498 113 110 72
69.000000 -24.000000 37.705498 110 108 71
70.000000 -24.000000 37.904999 143 140 96
71.000000 -24.000000 38.104500 163 158 120
72.000000 -24.000000 37.904999 168 163 120
73.000000 -24.000000 16.358999 175 173 113
63.000000 -25.000000 37.506001 194 193 119
64.000000 -25.000000 37.705498 160 160 95
65.000000 -25.000000 37.705498 149 149 92
66.000000 -25.000000 37.705498 173 170 115
67.000000 -25.000000 37.705498 149 147 99
68.000000 -25.000000 37.506001 102 101 68
69.000000 -25.000000 37.506001 92 92 62
70.000000 -25.000000 21.146999 112 108 77
71.000000 -25.000000 37.506001 141 133 107
72.000000 -25.000000 37.506001 153 144 112
73.000000 -25.000000 32.917500 161 153 101
63.000000 -26.000000 37.705498 147 147 99
64.000000 -26.000000 37.705498 108 108 72
65.000000 -26.000000 37.705498 116 115 85
66.000000 -26.000000 37.506001 166 163 131
67.000000 -26.000000 37.506001 146 144 114
68.000000 -26.000000 21.546000 96 97 69
69.000000 -26.000000 21.346498 88 88 59
70.000000 -26.000000 20.747999 111 107 76
71.000000 -26.000000 21.146999 141 131 106
73.000000 -26.000000 31.919998 166 154 106
74.000000 -26.000000 31.521000 186 175 113
75.000000 -26.000000 31.321499 193 181 121
76.000000 -26.000000 31.321499 196 180 124
77.000000 -26.000000 31.321499 195 178 121
63.000000 -27.000000 37.705498 143 141 125
64.000000 -27.000000 38.104500 104 101 88
65.000000 -27.000000 38.104500 102 99 89
66.000000 -27.000000 37.705498 148 147 139
67.000000 -27.000000 37.705498 151 151 141
68.000000 -27.000000 21.546000 100 100 84
69.000000 -27.000000 21.146999 104 101 78
73.000000 -27.000000 31.919998 165 158 116
74.000000 -27.000000 31.919998 162 153 105
75.000000 -27.000000 31.720499 184 171 119
76.000000 -27.000000 31.720499 196 178 126
77.000000 -27.000000 31.720499 187 170 123
78.000000 -27.000000 31.521000 175 163 119
63.000000 -28.000000 37.904999 168 166 163
64.000000 -28.000000 38.104500 137 132 129
65.000000 -28.000000 38.304001 110 107 104
66.000000 -28.000000 38.304001 116 114 111
67.000000 -28.000000 39.301498 126 124 116
68.000000 -28.000000 39.700500 116 113 98
69.000000 -28.000000 21.745499 128 124 101
73.000000 -28.000000 32.119499 149 145 119
74.000000 -28.000000 31.919998 131 126 91
75.000000 -28.000000 31.919998 162 153 109
76.000000 -28.000000 31.919998 176 164 114
77.000000 -28.000000 31.919998 158 148 104
78.000000 -28.000000 31.919998 142 136 94
63.000000 -29.000000 37.904999 166 167 163
64.000000 -29.000000 38.104500 148 144 143
65.000000 -29.000000 38.304001 122 118 116
66.000000 -29.000000 39.301498 127 126 114
67.000000 -29.000000 40.299000 143 142 119
68.000000 -29.000000 40.897499 154 153 125
69.000000 -29.000000 41.296497 147 145 117
71.000000 -29.000000 32.319000 124 118 91
72.000000 -29.000000 32.319000 126 120 103
73.000000 -29.000000 32.319000 120 117 93
74.000000 -29.000000 32.119499 100 99 69
75.000000 -29.000000 31.919998 117 114 80
76.000000 -29.000000 32.319000 135 130 87
77.000000 -29.000000 49.276497 124 122 76
78.000000 -29.000000 48.877499 116 116 69
63.000000 -30.000000 37.904999 176 178 164
64.000000 -30.000000 38.304001 161 159 152
65.000000 -30.000000 38.902500 169 166 159
66.000000 -30.000000 39.700500 170 168 151
67.000000 -30.000000 40.498497 167 168 137
68.000000 -30.000000 41.296497 178 181 147
69.000000 -30.000000 41.495998 163 164 135
70.000000 -30.000000 42.692997 139 139 114
71.000000 -30.000000 46.084499 138 132 115
72.000000 -30.000000 50.673000 127 120 102
73.000000 -30.000000 50.673000 101 99 78
74.000000 -30.000000 32.518497 80 81 59
75.000000 -30.000000 32.518497 86 86 61
76.000000 -30.000000 50.473499 101 100 68
77.000000 -30.000000 50.273998 102 102 64
78.000000 -30.000000 49.077000 101 103 60
63.000000 -31.000000 38.304001 193 194 170
64.000000 -31.000000 38.503498 189 188 174
65.000000 -31.000000 39.301498 216 213 200
66.000000 -31.000000 39.700500 215 210 191
67.000000 -31.000000 40.498497 193 192 159
68.000000 -31.000000 40.498497 189 191 153
70.000000 -31.000000 44.688000 167 167 142
71.000000 -31.000000 53.066998 190 187 174
72.000000 -31.000000 53.066998 159 154 139
73.000000 -31.000000 53.066998 130 128 107
74.000000 -31.000000 52.468498 121 118 94
75.000000 -31.000000 51.071999 131 128 96
76.000000 -31.000000 51.071999 135 132 96
77.000000 -31.000000 50.273998 121 118 83
78.000000 -31.000000 49.077000 102 101 65
63.000000 -32.000000 38.304001 221 221 204
64.000000 -32.000000 38.503498 227 227 214
65.000000 -32.000000 38.902500 229 228 211
66.000000 -32.000000 39.301498 219 217 192
67.000000 -32.000000 40.697998 208 208 177
68.000000 -32.000000 41.296497 200 201 165
71.000000 -32.000000 53.066998 207 206 189
72.000000 -32.000000 53.266499 172 169 150
73.000000 -32.000000 53.266499 158 155 127
74.000000 -32.000000 53.266499 156 151 117
75.000000 -32.000000 51.670498 148 144 103
76.000000 -32.000000 51.071999 140 140 95
77.000000 -32.000000 49.077000 123 123 82
78.000000 -32.000000 48.278999 101 101 63
64.000000 -33.000000 38.503498 225 226 221
65.000000 -33.000000 38.902500 217 216 199
66.000000 -33.000000 40.697998 207 206 179
67.000000 -33.000000 62.842499 204 205 176
68.000000 -33.000000 61.844997 195 197 163
69.000000 -33.000000 60.847500 200 201 169
70.000000 -33.000000 54.862499 210 210 182
71.000000 -33.000000 54.662998 210 208 182
72.000000 -33.000000 54.862499 197 194 169
73.000000 -33.000000 54.064499 187 184 155
74.000000 -33.000000 54.064499 170 166 130
75.000000 -33.000000 52.468498 144 142 99
76.000000 -33.000000 52.468498 124 125 78
77.000000 -33.000000 50.074497 102 105 58
78.000000 -33.000000 48.278999 87 90 48
64.000000 -34.000000 39.301498 221 220 224
65.000000 -34.000000 64.438499 223 223 222
66.000000 -34.000000 65.036995 217 216 208
67.000000 -34.000000 64.438499 208 209 194
68.000000 -34.000000 63.241497 192 194 169
69.000000 -34.000000 61.844997 190 191 165
70.000000 -34.000000 60.847500 195 196 168
71.000000 -34.000000 60.248997 189 189 156
72.000000 -34.000000 54.862499 184 183 152
74.000000 -34.000000 62.642998 185 184 152
75.000000 -34.000000 67.031998 158 157 119
76.000000 -34.000000 69.425995 124 125 84
77.000000 -34.000000 69.625496 99 102 58
78.000000 -34.000000 48.278999 86 91 49
64.000000 -35.000000 115.111496 162 161 163
65.000000 -35.000000 114.911995 188 187 189
66.000000 -35.000000 114.911995 208 207 209
67.000000 -35.000000 114.911995 217 216 217
68.000000 -35.000000 65.036995 212 212 208
69.000000 -35.000000 63.839996 201 202 192
70.000000 -35.000000 61.844997 194 196 177
71.000000 -35.000000 75.809998 183 185 158
72.000000 -35.000000 62.642998 174 175 146
73.000000 -35.000000 60.647999 156 157 127
74.000000 -35.000000 67.031998 155 156 126
75.000000 -35.000000 69.425995 180 180 153
76.000000 -35.000000 70.223999 156 156 128
77.000000 -35.000000 70.423500 115 117 83
78.000000 -35.000000 70.223999 90 94 54
63.000000 -36.000000 115.310997 120 121 106
64.000000 -36.000000 117.106499 121 120 114
65.000000 -36.000000 117.306000 130 129 128
66.000000 -36.000000 117.306000 148 146 147
67.000000 -36.000000 116.108994 173 171 173
68.000000 -36.000000 114.712494 197 196 196
69.000000 -36.000000 75.610497 211 211 211
70.000000 -36.000000 75.809998 216 216 214
71.000000 -36.000000 76.009499 213 213 209
72.000000 -36.000000 76.009499 205 205 194
73.000000 -36.000000 75.809998 181 182 162
74.000000 -36.000000 70.623001 154 155 134
75.000000 -36.000000 70.623001 178 178 157
76.000000 -36.000000 70.822495 184 183 161
77.000000 -36.000000 71.021996 155 155 131
78.000000 -36.000000 70.623001 96 98 69
63.000000 -37.000000 117.106499 120 124 90
64.000000 -37.000000 118.902000 115 118 89
65.000000 -37.000000 119.500496 125 127 110
66.000000 -37.000000 121.495499 125 123 118
67.000000 -37.000000 121.495499 127 123 124
68.000000 -37.000000 116.906998 140 136 138
69.000000 -37.000000 75.809998 162 159 160
70.000000 -37.000000 76.009499 188 186 187
71.000000 -37.000000 76.009499 209 208 209
72.000000 -37.000000 76.009499 221 220 220
73.000000 -37.000000 76.009499 221 221 219
74.000000 -37.000000 70.623001 207 207 203
75.000000 -37.000000 70.822495 196 195 186
76.000000 -37.000000 71.021996 198 196 183
77.000000 -37.000000 71.221497 181 180 161
78.000000 -37.000000 71.021996 124 123 105
64.000000 -38.000000 119.500496 108 114 75
65.000000 -38.000000 127.679993 125 130 94
66.000000 -38.000000 127.679993 127 129 108
67.000000 -38.000000 128.078995 117 116 106
68.000000 -38.000000 129.675003 117 114 110
69.000000 -38.000000 131.669998 122 119 118
70.000000 -38.000000 133.265991 134 129 130
71.000000 -38.000000 133.265991 155 149 151
72.000000 -38.000000 131.270996 181 177 179
73.000000 -38.000000 76.608002 205 203 205
74.000000 -38.000000 74.812500 221 220 221
75.000000 -38.000000 73.416000 226 225 226
76.000000 -38.000000 71.420998 227 225 225
77.000000 -38.000000 71.420998 217 215 212
78.000000 -38.000000 71.021996 186 184 180
64.000000 -39.000000 127.679993 100 108 64
65.000000 -39.000000 127.679993 102 108 69
66.000000 -39.000000 131.270996 112 116 86
67.000000 -39.000000 134.063995 102 106 80
68.000000 -39.000000 136.457993 97 99 76
69.000000 -39.000000 137.455490 105 104 93
70.000000 -39.000000 138.054001 116 112 111
71.000000 -39.000000 138.253494 123 117 118
72.000000 -39.000000 139.450500 130 123 125
73.000000 -39.000000 131.270996 145 139 141
76.000000 -39.000000 73.416000 221 219 221
77.000000 -39.000000 72.418495 232 231 233
78.000000 -39.000000 71.021996 232 232 232
64.000000 -40.000000 3.192000 96 104 66
65.000000 -40.000000 131.270996 93 99 62
66.000000 -40.000000 140.447998 98 103 74
67.000000 -40.000000 140.447998 92 98 73
68.000000 -40.000000 140.248489 83 86 60
69.000000 -40.000000 140.248489 84 87 65
70.000000 -40.000000 140.447998 104 103 94
71.000000 -40.000000 140.447998 123 119 119
72.000000 -40.000000 140.447998 126 121 122
73.000000 -40.000000 140.447998 122 116 118
74.000000 -40.000000 74.812500 124 118 120
75.000000 -40.000000 65.236496 137 132 133
76.000000 -40.000000 74.213997 160 156 158
77.000000 -40.000000 73.416000 190 188 190
78.000000 -40.000000 71.620499 216 215 217
64.000000 -41.000000 3.192000 96 100 76
65.000000 -41.000000 140.447998 81 87 59
66.000000 -41.000000 140.847000 77 83 56
67.000000 -41.000000 141.246002 76 81 59
68.000000 -41.000000 140.847000 75 78 58
69.000000 -41.000000 140.847000 76 79 57
70.000000 -41.000000 140.647491 95 96 83
71.000000 -41.000000 140.647491 132 130 129
72.000000 -41.000000 140.647491 149 146 146
73.000000 -41.000000 140.447998 128 125 125
77.000000 -41.000000 73.416000 129 124 126
78.000000 -41.000000 72.418495 149 145 147
64.000000 -42.000000 3.192000 132 135 123
65.000000 -42.000000 140.447998 85 90 71
66.000000 -42.000000 141.246002 73 78 55
67.000000 -42.000000 141.445496 65 70 49
68.000000 -42.000000 141.246002 63 66 50
69.000000 -42.000000 141.246002 65 68 47
70.000000 -42.000000 140.847000 87 89 74
71.000000 -42.000000 140.647491 138 137 136
72.000000 -42.000000 140.647491 166 165 165
77.000000 -42.000000 155.809494 114 110 111
78.000000 -42.000000 155.809494 116 112 113
63.000000 -43.000000 3.192000 175 174 175
64.000000 -43.000000 3.192000 192 191 192
65.000000 -43.000000 3.790500 147 147 143
66.000000 -43.000000 141.445496 94 96 84
67.000000 -43.000000 141.445496 65 67 54
68.000000 -43.000000 141.445496 56 59 45
69.000000 -43.000000 141.246002 57 60 43
70.000000 -43.000000 140.647491 84 86 77
71.000000 -43.000000 140.447998 142 142 141
76.000000 -43.000000 161.595001 92 92 83
77.000000 -43.000000 163.190994 100 98 92
78.000000 -43.000000 162.392990 107 105 102
75.000000 -44.000000 163.988998 73 78 50
76.000000 -44.000000 163.988998 66 68 52
77.000000 -44.000000 164.188492 66 68 54
78.000000 -44.000000 163.589996 77 77 67
74.000000 -45.000000 167.978989 63 65 51
75.000000 -45.000000 167.978989 61 65 44
76.000000 -45.000000 167.978989 55 57 44
77.000000 -45.000000 167.978989 56 58 47
78.000000 -45.000000 164.388000 54 57 47
73.000000 -46.000000 169.175995 124 124 122
74.000000 -46.000000 169.175995 60 61 56
75.000000 -46.000000 169.175995 56 58 50
76.000000 -46.000000 169.175995 63 65 57
77.000000 -46.000000 169.175995 57 58 51
78.000000 -46.000000 167.978989 49 51 45
63.000000 -47.000000 6.184500 145 145 146
64.000000 -47.000000 6.783000 124 125 123
65.000000 -47.000000 6.583500 136 136 135
66.000000 -47.000000 6.583500 143 141 143
67.000000 -47.000000 6.583500 118 116 117
68.000000 -47.000000 7.182000 164 163 171
72.000000 -47.000000 44.688000 176 176 177
73.000000 -47.000000 169.175995 125 126 123
74.000000 -47.000000 169.574997 63 64 58
75.000000 -47.000000 169.973999 54 55 49
76.000000 -47.000000 169.973999 52 53 48
77.000000 -47.000000 169.774490 45 46 42
78.000000 -47.000000 169.175995 46 47 42
64.000000 -48.000000 6.184500 120 119 120
65.000000 -48.000000 6.583500 134 133 133
66.000000 -48.000000 6.982500 139 138 139
67.000000 -48.000000 7.182000 99 97 98
68.000000 -48.000000 7.581000 156 156 160
72.000000 -48.000000 45.286499 175 175 177
73.000000 -48.000000 169.574997 118 119 117
74.000000 -48.000000 169.973999 55 56 50
75.000000 -48.000000 170.173492 46 48 39
76.000000 -48.000000 170.572495 40 41 35
77.000000 -48.000000 170.572495 39 40 36
78.000000 -48.000000 169.774490 43 44 40
65.000000 -49.000000 6.783000 131 130 131
66.000000 -49.000000 7.381500 140 139 140
67.000000 -49.000000 7.381500 100 99 99
68.000000 -49.000000 8.778000 155 155 158
71.000000 -49.000000 44.688000 151 150 152
72.000000 -49.000000 45.086998 176 175 178
73.000000 -49.000000 169.574997 119 119 119
74.000000 -49.000000 170.173492 54 55 49
75.000000 -49.000000 170.572495 43 45 36
76.000000 -49.000000 170.572495 38 39 33
77.000000 -49.000000 170.572495 37 38 34
78.000000 -49.000000 170.572495 40 41 37
65.000000 -50.000000 7.581000 131 129 130
66.000000 -50.000000 8.778000 139 137 139
67.000000 -50.000000 9.376500 97 96 96
68.000000 -50.000000 10.374000 154 154 157
71.000000 -50.000000 45.086998 151 150 152
72.000000 -50.000000 45.286499 174 174 177
73.000000 -50.000000 45.486000 117 117 118
74.000000 -50.000000 170.373001 53 55 49
75.000000 -50.000000 170.572495 45 47 39
76.000000 -50.000000 170.572495 41 42 35
77.000000 -50.000000 170.572495 40 42 35
78.000000 -50.000000 170.572495 45 46 40
65.000000 -51.000000 3.192000 131 129 130
66.000000 -51.000000 8.778000 138 136 139
67.000000 -51.000000 10.374000 95 95 94
68.000000 -51.000000 10.374000 154 154 157
71.000000 -51.000000 44.887497 151 151 151
72.000000 -51.000000 45.086998 172 172 176
73.000000 -51.000000 45.486000 115 115 116
74.000000 -51.000000 170.373001 52 53 49
75.000000 -51.000000 170.771988 50 51 45
76.000000 -51.000000 170.771988 52 54 48
77.000000 -51.000000 171.170990 50 51 46
78.000000 -51.000000 170.572495 45 46 40
64.000000 -52.000000 3.192000 116 114 115
65.000000 -52.000000 3.192000 131 129 130
66.000000 -52.000000 3.391500 140 138 140
67.000000 -52.000000 9.376500 106 103 102
72.000000 -52.000000 45.086998 171 171 175
73.000000 -52.000000 45.286499 114 114 115
74.000000 -52.000000 170.771988 62 62 60
75.000000 -52.000000 172.168503 83 84 82
76.000000 -52.000000 172.168503 115 115 116
77.000000 -52.000000 171.769501 126 126 128
78.000000 -52.000000 171.170990 90 90 90
63.000000 -53.000000 2.992500 138 137 140
64.000000 -53.000000 3.192000 119 116 118
65.000000 -53.000000 3.192000 134 132 133
66.000000 -53.000000 3.192000 146 144 145
72.000000 -53.000000 34.712997 171 170 175
73.000000 -53.000000 44.688000 114 114 115
74.000000 -53.000000 45.286499 81 81 80
75.000000 -53.000000 172.168503 124 124 124
76.000000 -53.000000 172.168503 152 152 155
77.000000 -53.000000 171.769501 185 184 191
63.000000 -54.000000 2.793000 137 136 139
64.000000 -54.000000 2.992500 123 120 122
65.000000 -54.000000 3.192000 138 136 137
66.000000 -54.000000 3.192000 156 154 157
63.000000 -55.000000 2.793000 138 136 139
64.000000 -55.000000 3.192000 127 126 125
65.000000 -55.000000 3.391500 139 138 137
66.000000 -55.000000 3.391500 159 158 162
67.000000 -55.000000 3.391500 144 142 142
63.000000 -56.000000 2.992500 139 136 141
64.000000 -56.000000 8.977500 131 130 130
65.000000 -56.000000 9.376500 142 141 141
66.000000 -56.000000 9.376500 165 164 167
67.000000 -56.000000 9.376500 154 151 151
68.000000 -56.000000 9.775499 155 154 155
63.000000 -57.000000 8.977500 139 135 141
64.000000 -57.000000 9.576000 128 126 127
65.000000 -57.000000 9.576000 140 139 140
66.000000 -57.000000 9.775499 166 164 167
67.000000 -57.000000 9.775499 152 150 148
68.000000 -57.000000 10.174500 162 161 164
63.000000 -58.000000 9.576000 149 144 146
64.000000 -58.000000 9.974999 128 127 127
65.000000 -58.000000 9.974999 140 139 139
66.000000 -58.000000 10.174500 164 163 165
67.000000 -58.000000 10.174500 152 149 148
68.000000 -58.000000 10.174500 163 162 165
63.000000 -59.000000 9.974999 164 155 153
64.000000 -59.000000 10.573500 130 130 126
65.000000 -59.000000 10.174500 143 144 139
66.000000 -59.000000 10.174500 161 159 161
67.000000 -59.000000 10.374000 152 148 149
68.000000 -59.000000 10.374000 163 162 167
